# 3D point list with one line of data per point:
#   POINT3D_ID, X, Y, Z, R, G, B, ERROR, TRACK[] as (IMAGE_ID, POINT2D_IDX)
# Number of points: 164, mean track length: 2.8841463414634148
127 1.125533480909662 2.3596062983983406 4.3119614496674235 95 100 102 0.17866528066853274 2 30144 1 26570 3 8833
126 1.3019909977464885 2.4430682664673649 4.2018103830177287 212 220 221 0.17621761968101024 2 29729 1 26240 3 8591
125 0.63697538206381654 2.8180471089295676 3.285750546520092 204 207 209 0.59474145595677386 2 23448 5 13682 1 26225
124 0.59188328972977666 2.8508215625421229 3.2082501039903231 198 200 201 0.31061665173526537 2 30526 5 13883 1 26212
123 0.64136066138503134 2.9001040521718564 3.1324324069160672 206 211 211 0.51261076660797322 2 23019 5 14200 1 26115
122 0.34404292241111367 3.2344929654991179 2.4029200568982891 100 101 99 0.69277435438050805 2 30515 5 16478 1 25824
121 1.3868359921555962 2.6848783690007418 3.7637728885627255 186 190 192 0.34293372913735154 2 29373 1 25782 3 13580
120 1.5975662846544973 2.6193962229579824 3.9451110752664693 221 226 229 0.16441376927075746 2 29168 1 25705 3 8243
119 0.79593728366348171 3.115377655335144 2.7690284503500395 216 219 219 0.6742307405742487 2 29835 1 25636 5 15648
118 1.6401951645928339 2.6749389877898246 3.8586874450637745 219 224 227 0.22509939444056581 2 29073 1 25589 3 8226
117 0.43823505759310427 3.3543980418246133 2.2036443867718281 77 76 76 1.0714609226138732 2 30183 5 26334 1 25567
116 1.9038294727951586 2.5498984697282521 4.1590062097012606 101 105 108 0.74348336344838761 2 28851 1 25542 3 13081
115 3.6423283206617389 1.6433296244299012 6.4689789870446619 247 248 248 1.3299520178297277 2 13247 1 25541 5 28847
114 1.4002435647504694 2.893307552545874 3.3679902437257652 241 245 246 0.23283287908091496 2 29194 5 14297 1 25482
113 0.58280165797173655 3.3608877937515951 2.231935971196465 92 93 92 1.2794662058417783 2 29929 1 25455 5 26366
112 1.3277761818655125 2.9514408684188198 3.2343461390173731 90 94 96 0.17433350191082111 2 29223 5 14671 1 25449
111 0.69211350742653055 3.323235784686962 2.3333568936257341 75 77 76 1.067658044077787 2 29764 1 25403 5 17280
110 1.0002401912097456 3.1612870130641908 2.7356644255482396 92 95 96 0.54577534125315263 2 29448 5 25870 1 25396
109 0.86202861125488195 3.2442817340204266 2.5379371252659944 82 85 84 0.88771009098295706 2 29592 1 25389 5 16621
108 1.5038804117893274 2.911232271552008 3.3635335438530891 118 122 124 0.15398429888583978 2 29050 5 25383 1 25360
107 0.58401788989794312 3.4320537722488527 2.0942821819753643 229 229 227 1.2862150369867991 2 29836 1 25353 5 26594
106 1.8178054281485645 2.8130681532693149 3.6431835985070888 90 94 97 0.62015804160497956 2 16804 1 25283 3 8060
105 0.91243563838516295 3.3357981954641445 2.3766844416878414 181 183 183 0.89415822508051812 2 29420 1 25253 5 26298
104 2.6215248552316224 2.6492943236677435 4.1762138661964645 74 75 78 0.48853017607381249 2 28109 1 24945 3 12696
103 1.3481098539081011 3.4033027214230125 2.3745588728625266 223 225 226 1.3239182217238645 2 28858 5 26508 1 24897
102 2.3668659156283862 2.8593703154768173 3.7148101924869654 110 114 117 0.7902173906122737 2 28224 1 24871 3 12901
101 2.0186532764014715 3.1456680777742374 3.0618681482809036 188 193 195 0.20295825023720168 2 28368 5 25876 1 24769
100 1.4278014293063954 3.4975075227019778 2.2126323053379515 210 212 213 1.5719660244917606 2 28709 5 30237 1 24737
99 1.53677535768035 3.585338879817916 2.0792070961075892 187 190 191 2.0710910535836553 2 28541 1 24579 5 32191
98 2.919693057867391 2.9131100246451167 3.7617865328105311 158 158 161 0.14833892326737672 2 27733 1 24486 3 6617
96 6.3126668660718002 2.7379051149526394 5.5220642199859178 33 21 12 1.2288450929715635 4 3608 5 29535 1 23511 2 26201 3 4204
95 6.3289616441107519 2.7568938319103622 5.4914807278800506 31 21 11 0.64960087996381777 5 25303 1 23493 2 26187
94 3.3918657938855015 4.1957245573936168 1.4474764120467609 99 102 103 0.45793993731923677 2 26853 1 23291 3 12814
93 8.4025937407391815 4.0243603352584092 3.4719202231310504 53 17 3 1.0713236855675836 2 25190 1 22250 3 3352
92 1.2946283857601981 1.945427476030027 5.1580931920325046 77 80 82 0.49528993979131525 2 30332 1 20931 3 7989
91 3.3131413975134101 1.2528408642371738 7.0969866870347245 46 41 43 0.86326571758870685 2 32760 1 18165 3 5431
90 1.1892206287192979 2.455143389517882 4.1490584249676505 85 89 91 0.27186075234850621 2 29918 1 17878 3 8830
47 0.76561805282304229 3.5183948980526067 1.9769956552372836 200 200 199 1.8388012705767023 2 19706 1 13681 5 19134
174 4.7251820606280663 0.034910518382896667 10.158719886376749 144 126 111 1.0165716505648017 4 8719 3 15166 5 28356
128 1.125533480909662 2.3596062983983406 4.3119614496674235 95 100 102 0.17866528066853274 2 30143 1 26571 3 8834
129 1.2773945441260297 2.2050848800171878 4.6579022421429057 82 85 89 0.091179150962928168 2 30065 1 26710 3 13402
2 6.9038961135400854 5.1965753873702454 0.59885842943763457 66 61 52 0.48290508495872964 2 4402 1 3489
130 1.2939937345496708 2.119857529158188 4.8248074870616797 92 96 98 0.2894874452149821 2 30129 1 26865 3 8189
3 8.7216402688422008 3.9418939279096765 3.5090654852798671 209 189 173 0.80025257798620053 2 3625 1 3788 3 3033
131 9.6973051589820045 5.4435327896561256 1.1524045750552971 234 192 160 0.88650832120922329 2 31005 1 27642 3 10817
4 6.9643413754499006 3.6606710911028117 3.9806408004661957 51 30 14 0.61331319741080692 5 30363 1 6047 2 5973
133 8.7103975641667368 3.9890664165181304 3.5178442327536468 147 127 111 0.56765926451102533 2 31209 1 27888 3 14836
134 6.4974504643114805 3.0229618336993505 5.0509074413315451 53 43 34 0.31861571442576658 4 9385 5 31886 1 28478
7 4.9450491811639887 3.8531640894721164 2.5671829468040084 171 149 132 0.4089824794425333 2 7606 1 6680
136 5.7920625416113243 1.7433003504527422 7.1418196335227622 183 161 142 0.51476042904748942 1 29019 3 4093
9 6.4988245655455907 3.1445568918860785 4.6057648389996588 202 185 172 0.72122910189200085 1 6944 3 4171
137 1.9681481127013032 3.2869119117827892 2.7749921396110149 203 207 209 0.32101682692945488 2 32744 5 31994 1 29142
10 7.0170493278299393 2.6177556161362787 5.6535738909190068 163 144 114 1.0717816135239917 2 6169 1 7147
138 1.9681915419092566 3.2879573847095989 2.7742965942149209 204 209 211 0.43302768396699426 2 32745 5 31995 1 29143 3 16234
11 4.2313821948613395 3.9455281544542156 2.164486174032449 78 80 81 0.68011468363809124 2 26498 1 7199 3 12346
140 0.93488782414831562 2.7933131330700176 3.4253789425669949 143 147 149 1.4387443079166751 2 21576 5 25101 1 29794
13 6.5907351289966956 3.1350364669961319 4.8569397116972057 18 7 2 0.5781328893390667 5 29836 1 7273 2 6795 4 3819
141 1.5382718509636639 2.1161950821337432 4.899148080682 67 71 74 0.33828416504531283 2 29701 1 30028 3 7747
14 5.8623389020916683 2.4328963970637716 5.5652474918962689 97 86 77 0.051830248010246049 2 7656 1 8650
142 2.2057489091933573 1.4816212500318762 6.3266203367219109 254 234 214 0.031209684110283839 2 29356 1 30261
143 8.2082461761855718 3.4419766740623854 4.3947253004921745 177 160 141 0.99718427195969517 2 31295 1 30758 3 10863
144 7.2217403847949466 4.0432998892710508 3.3347225337677142 49 37 34 0.68023962598195009 4 14817 1 30805 3 17158
17 2.3044581133887463 3.6526857291342645 2.1471788586839264 120 124 125 0.34536147153157759 2 27844 1 10324
145 7.1986221047131531 4.0166050853666455 3.3963339952925726 54 38 30 0.56905937350947899 4 15462 1 30810 3 17164
18 2.371009207215903 3.5115285205754758 2.4611675062450273 79 82 84 0.49482201147726723 2 13213 1 10661 3 7875
146 4.9739714168682951 2.4695771260549613 5.1775314301956623 25 13 9 1.0622858513919002 2 31940 1 31171 3 11738
19 2.371009207215903 3.5115285205754758 2.4611675062450273 79 82 84 0.49482201147726723 2 13214 1 10662 3 7876
147 4.0312783982195644 2.1998351170879586 5.47843913555554 52 52 51 0.34747733890502563 2 32300 1 31394 3 5334
20 2.2437750888327459 3.4269997349418886 2.5841637694250652 101 105 106 0.19749056206608406 2 27988 1 11116 3 13235
56 1.1216298080905034 3.2422641580776177 2.6146010963671067 182 186 187 0.72797889464570631 2 18767 5 16645 1 14048
183 2.2679545144501709 1.0270012656039904 4.0624667929999365 178 180 181 0.2326211981955742 5 6357 4 3267
57 1.0382194605414468 3.2759747216986299 2.5251184104987723 78 82 82 1.0845252699566201 2 19096 5 16919 1 14105
184 1.9640059389556692 3.6008282608320616 2.17258055170978 221 223 224 1.1975157932340146 2 28146 1 24352 3 16309 5 30370
175 4.9775014000451101 0.91169893184874262 8.5650646507903083 163 152 143 1.1538653553753535 4 2809 3 15203 5 23309
48 0.72571138056737983 3.5342899308351452 1.9311599718470083 162 161 160 1.9529438168559716 2 29489 1 13693 5 26960
58 0.93698676054711816 3.3186951823971569 2.4120937475979947 100 104 104 0.86338960876933057 2 19476 1 14168 5 17271
185 6.1806251698203587 2.5550220824225245 5.8158332838876259 34 23 14 1.0378616188028027 4 9246 1 28667 3 4211 2 31794
176 4.3425493522559862 0.089397345733076214 10.021641622823234 48 33 24 0.997143136788608 4 8804 3 15237 5 22721
49 1.2664022837238333 3.2217238766385461 2.6985474682766655 106 111 112 0.62124693630877381 2 29087 5 26008 1 13785
59 1.1616832073573291 3.1975661546074745 2.7195559809022622 229 233 235 0.55991749701916571 2 29227 1 14182 5 25940
186 1.9933384463476751 3.2198096724085765 2.9127939462239647 115 120 124 0.30738143382375832 5 31956 1 29171 4 14121 3 17837
177 5.4150588229111651 3.7952569225208075 2.9649503397114461 226 228 229 0.79913649315760504 4 13875 3 15485
50 0.96600400451291857 3.383412927859776 2.2981266532596476 98 99 100 1.2563076906013531 2 19112 1 13806 5 17854
148 3.474689085088376 1.4329913540682975 6.7775098245610517 211 212 211 0.014489421704409179 2 32646 1 31658
179 1.5176136186437961 0.29045485768887525 5.2207648011780412 224 223 214 1.5842100373176502 4 8954 3 17402
52 1.797582577774018 2.9211196598238716 3.4546608836999102 114 118 122 0.9666623320259059 2 16623 1 13922 3 8236
181 6.6011513402962105 -0.52084639478379779 8.9174533649891359 48 28 10 1.0378313152211733 5 4736 4 751
54 1.1447730813510153 3.2417688450847488 2.6232741353040794 96 100 102 0.57482851832437321 2 29211 1 13994 5 26052
152 2.8953498561380666 2.7465790276345037 4.0562838808819341 69 72 74 0.20468620785367592 2 13083 1 32642
53 0.76130714388026999 3.463501724699916 2.0806123787367587 172 174 173 1.4378456477049533 2 29509 1 13928 5 26711
171 1.4300478194707607 2.7038835453008501 3.7346789512013934 93 97 101 0.39370667199456055 4 10562 3 13559 5 13206
44 1.2753108727273299 3.3279462195294007 2.4942029058752646 104 106 107 1.1777116630301412 2 17717 5 26284 1 13322
155 3.2794099658409803 2.5751253588680139 3.3866720351158337 201 201 203 0.38218220363671618 3 5682 2 9623 4 9908
172 7.3719058036960243 3.5238038855253047 4.2851672338506166 146 101 73 0.24641436871112515 4 14729 3 15093
45 1.0210966184957022 3.4528221441007974 2.1766010825585416 89 91 90 1.5985479698615681 2 18564 1 13383 5 18500
156 2.9647540677664113 3.0477380712417905 3.3217042782818775 102 103 116 2.1309271265150742 3 12630 2 11841 4 10278
29 1.9789092286267509 3.2834813500479441 2.7873487078177077 91 95 97 0.46414249671517371 2 14938 5 17093 1 12061
55 1.3080976520818095 3.1509073119228983 2.8497661218895645 110 109 108 0.17235743987660865 2 18157 5 25859 1 14023
173 4.6712546595096942 -0.032122218311144903 10.226440269464314 102 86 74 0.52550444149645348 4 2341 3 15165
46 0.86522620324346644 3.5324686249865596 1.9781149591324061 81 81 81 1.6886507974853266 2 29302 1 13407 5 26952
157 9.9152845564012573 2.6959476435846117 4.7912092853606776 254 232 203 0.39958671622465869 3 1251 2 24245 4 2000
30 1.8832320568731171 3.2883379532585852 2.747495338499764 188 192 194 0.23863421961095418 2 15299 1 12220 3 8526
170 5.2483595583259168 1.9291045491071035 6.9438204104885344 21 14 12 0.8129708234136227 4 9210 3 11675
43 0.94450505592472944 3.5181509026158193 2.0301272499782974 173 175 175 1.6404360372282596 2 18747 1 13294 5 19145
51 0.94098616543742164 3.3952644166146593 2.2653871466770581 200 202 201 1.2000816476108824 2 19175 5 26479 1 13807
169 6.6153620782184497 3.1486392561689378 4.8502776111814345 58 42 32 0.68916232584897053 4 9423 3 4190 5 31931
42 1.1690971493796296 3.4133573899728975 2.2978208859625586 83 86 87 1.4702131395074194 2 17949 5 26541 1 13231
168 4.5069151565296064 -0.14350214309267856 10.222181613770093 155 127 118 0.042959231120309423 4 8675 3 4100 5 28288
41 1.3093446911065429 3.3546667457959534 2.4599015739174988 188 191 191 0.98903996099328317 2 17480 5 26370 1 13178
167 7.0393000377017465 -0.99085035680897338 9.2688069777688025 33 21 7 0.89993135676393055 4 133 3 393 5 21808
40 1.5524929296218699 3.2434997855907377 2.7412638828509523 204 207 210 0.80880500131798116 2 16716 5 26069 1 13090
166 3.103173587118417 2.3017345806013179 3.8900462464816066 46 48 51 1.1488459977717935 3 15646 2 32215 4 9805
39 1.3184787639735589 3.3825817971518495 2.4014347929548814 210 212 213 1.13199918961954 2 17337 5 26450 1 13010
164 3.5417664167663343 2.3255200284755748 2.8661544067293243 232 146 113 1.4435197756116755 5 12265 2 31684
37 0.99282811700481599 3.6240545451570321 1.835488119422884 164 164 164 2.5810616077040662 2 18176 1 12722 5 27279
162 2.7550119614763733 2.4565159622770656 3.9467622742056205 42 37 14 0.3099142309711298 3 12468 5 12375
35 1.7209317914727638 3.2500940165491228 2.7772565402362748 187 190 192 0.63882071493538795 2 16007 1 12690 5 16770
160 6.248659955877284 2.7796848608134255 5.5727130533596121 41 33 27 1.0847040794347325 3 4314 2 26280 4 3683
33 1.9691338152768807 3.1591018937525415 3.0181877561558981 85 89 92 0.28625529839439884 2 28396 5 16145 1 12509
159 6.330964678029452 2.7386496803350013 5.5050648625953746 161 148 137 1.3058694198456351 3 4183 5 25280 2 26171
32 2.3816608900991403 2.9805074977725825 3.4905906697159894 239 243 246 0.73400157773548991 2 14262 1 12366 3 12956
158 6.7129494828032499 3.2683327534611792 4.6580767450950207 46 33 17 1.1641961434834454 3 4177 5 31983 4 9458
31 2.0042607918043007 3.1976564435793713 2.9576252361728508 198 203 205 0.17804869904417087 2 15048 1 12324 5 16433
149 3.4558353890013698 1.3971538332873892 6.8515941842155508 228 228 229 0.25078251315288497 2 32663 1 31673 3 5388
22 2.0309787698728234 3.4798759301041193 2.424229709542383 82 86 87 0.99541197988949859 2 28159 5 30212 1 11317
38 0.98710057725660272 3.5698401010389058 1.941112302407737 185 187 186 1.6646923828545173 2 29146 1 12987 5 30332
36 1.104227587732928 3.583978183329652 1.9513744971572804 80 80 80 1.7185472372381518 2 28995 5 30353 1 12692
34 4.6356437195505453 1.7699397104649275 6.5508903838951404 187 171 154 0.38364386600721767 2 27129 1 12551
8 6.313819303114216 3.0173910876597563 4.5883723553758653 111 92 75 1.4994963923202738 2 25937 1 6901
5 6.9368249968154139 3.6597103577157015 4.0033474129777558 30 16 9 0.31748801241721175 5 30359 1 6117 4 4163
23 1.7489957148794224 3.622151998267146 2.0669476051642386 97 99 100 1.7233195295608648 2 14960 1 11350 5 27263
24 4.3150326965692347 2.2458059147769616 5.4892492544094109 236 240 238 0.40256827664419026 2 10526 1 11355
26 3.1561548678019875 2.8461831410604148 4.0076691423388482 20 20 16 0.34474618131750001 2 27616 1 11479
27 5.5298935939732852 1.730398912067195 7.0736583562314399 149 142 132 0.75959780589829684 1 11577 3 11420
60 1.5082053254805083 2.9983927461882645 3.1986792523588141 204 209 210 0.22739785359388254 2 17624 5 14991 1 14192
61 0.91749291888035822 3.3032929211296778 2.432631605460164 87 90 91 1.1575034874946368 2 19638 5 26205 1 14260
62 1.6399033523635942 2.9036144986672223 3.4190232176673305 214 219 221 0.5420234246375536 2 17320 5 14420 1 14274
63 1.9604935312304659 2.722102378642222 3.8573532249836635 84 88 91 0.30849642169347047 2 28681 1 14289 3 7700
64 0.66931171831448077 3.3777555057716957 2.2221077262653832 231 235 233 1.1267921243573609 2 29746 5 17765 1 14557
65 1.2651193226901303 3.0313277488602681 3.0729743184079261 145 145 146 1.714363586357819 2 18839 5 15155 1 14625
66 1.5637258517019332 2.8608771288694528 3.4815721505865174 186 189 192 0.33022700822847145 2 29024 1 14659 3 13527
67 1.0592527418710844 3.1207878502366047 2.8322274497802975 87 91 93 0.52546882178603016 5 15746 1 14717
68 1.0207137200418976 3.109272327159978 2.8435711404647188 75 79 81 0.57144577816958719 2 19813 5 15636 1 14879
69 0.60378629945107221 3.3310439258796221 2.290578598814764 223 225 224 0.99788511045417128 2 21339 5 17346 1 14900
70 0.51969629503892689 3.3795473635977369 2.1787552518171149 233 234 233 1.2951470669032157 2 30020 1 14913 5 17763
71 0.55687850714705578 3.3412253198861563 2.2617897340991271 181 182 181 1.0426717834997234 2 29992 5 26300 1 15018
72 0.68640716940117519 3.2645200670226635 2.446287545179803 91 94 93 0.72291961928679926 2 29850 5 26094 1 15033
73 1.7127654735303333 2.6754826278518076 3.8728384351092697 99 104 107 0.30218190642309245 2 28981 1 15108 3 8083
74 0.44647445414442194 3.3700204173887678 2.1751135774186361 158 158 156 1.6002030230052755 2 30157 5 17670 1 15152
75 0.56583835088059697 3.2671968267813827 2.4048078306501917 243 246 245 0.78385083665699451 2 21896 5 16768 1 15320
76 0.3723851996398494 3.3396039622599045 2.2085289608887377 94 93 92 1.233637309421149 2 30315 1 15501 5 17391
77 0.77333855163757748 3.1153588982704497 2.7586576101791005 82 86 87 0.40154510463663523 2 21197 5 15647 1 15509
78 0.34764518659425747 3.3419355960193906 2.1989301889297201 217 218 215 1.0210177556023003 2 30369 1 15560 5 26296
79 0.78265720048871434 3.1016367322689611 2.7898227409792815 212 215 216 0.34313988266759932 2 21194 5 15543 1 15572
80 1.07254272423404 2.9310831137537954 3.2076442693338629 146 149 149 1.4207191524252663 2 20280 5 14476 1 15605
81 0.35441983486790563 3.3289789170676882 2.2296659581679585 92 91 90 1.0067474661204454 2 23064 1 15632 5 17287
82 0.55743132814522467 3.1921229479283006 2.5482997244195529 240 242 241 0.69838042816141221 2 22311 5 16197 1 15744
83 1.4891149222771625 2.6440584860461702 3.8669864137849288 206 209 212 0.24436727545373604 2 18892 1 15889 3 13456
84 1.3174785163732914 2.7406081923929242 3.6412740951871574 108 112 114 0.47876893846961405 2 19521 1 15905 3 8970
85 0.47505618911124442 3.1757261724060846 2.5558373480678869 231 233 232 0.46437174832255251 2 30329 1 16072 5 25875
86 0.44869551681802172 3.1167357841628394 2.6604941178715689 214 217 216 0.42059414317133464 2 30466 5 15606 1 16450
87 0.8932218303444347 2.8403816450096633 3.3227990207830329 86 89 90 0.53534134254651589 2 29983 1 16636 5 13871
88 0.80400835450293862 2.8085778739316916 3.3600636159904114 213 217 219 0.52429590622018007 2 22353 5 13659 1 17120
89 2.0627812802791152 2.0606994860504328 5.1646844984179392 53 54 56 0.29660746400834653 2 18015 1 17406
